0.486588 0.401390 -0.295408 
0.485232 0.400267 -0.230943 
0.483717 0.399014 -0.169918 
0.482058 0.397642 -0.112834 
0.480271 0.396164 -0.060195 
0.478370 0.394591 -0.012502 
0.476370 0.392936 0.029742 
0.463343 0.382159 0.255544 
0.448238 0.369664 0.473534 
0.431232 0.355595 0.683388 
0.412502 0.340100 0.884782 
0.392222 0.323323 1.077394 
0.370569 0.305410 1.260899 
0.347721 0.286508 1.434974 
0.323852 0.266762 1.599298 
0.299139 0.246317 1.753544 
0.273758 0.225321 1.897393 
0.247885 0.203917 2.030518 
0.221697 0.182252 2.152597 
0.195370 0.160473 2.263308 
0.169080 0.138724 2.364494 
0.143003 0.117151 2.453164 
0.117316 0.095901 2.529261 
0.064175 0.067186 -2.455292 
0.109426 0.115373 -2.446898 
0.158762 0.167911 -2.439316 
0.205643 0.217835 -2.433408 
0.268160 0.284410 -2.426353 
0.317543 0.336997 -2.419610 
0.368620 0.391389 -2.412140 
0.390652 0.414851 -2.403976 
0.394551 0.419003 -2.341302 
0.398010 0.422687 -2.295373 
0.401073 0.425948 -2.246545 
0.403781 0.428832 -2.194975 
0.406178 0.431385 -2.140820 
0.408306 0.433651 -2.084238 
0.410209 0.435677 -2.025387 
0.411929 0.437508 -1.964423 
0.413508 0.439190 -1.901504 
0.414990 0.440769 -1.836788 
0.416418 0.442289 -1.770433 
0.417834 0.443797 -1.702595 
0.419281 0.445337 -1.633432 
0.419295 0.445353 -1.540840 
0.411407 0.436953 -1.492707 
0.415277 0.441074 -1.431039 
0.422105 0.448345 -1.366064 
0.426976 0.453532 -1.277793 
0.429131 0.455827 -1.217915 
0.430961 0.457775 -1.154444 
0.432477 0.459390 -1.087883 
0.433694 0.460686 -1.018734 
0.434625 0.461677 -0.947499 
0.435282 0.462378 -0.874681 
0.435680 0.462801 -0.800781 
0.435831 0.462962 -0.726303 
0.435749 0.462875 -0.651748 
0.435447 0.462552 -0.577619 
0.434937 0.462010 -0.504419 
0.434234 0.461261 -0.432648 
0.433350 0.460320 -0.362811 
0.432299 0.459201 -0.295408 
0.431094 0.457918 -0.230943 
0.429748 0.456484 -0.169918 
0.428275 0.454915 -0.112834 
0.426687 0.453224 -0.060195 
0.424998 0.451426 -0.012502 
0.423221 0.449533 0.029742 
0.411647 0.437209 0.255544 
0.398228 0.422919 0.473534 
0.383120 0.406830 0.683388 
0.366479 0.389109 0.884782 
0.348461 0.369923 1.077394 
0.329225 0.349438 1.260899 
0.308925 0.327821 1.434974 
0.287719 0.305239 1.599298 
0.265764 0.281858 1.753544 
0.243214 0.257846 1.897393 
0.220229 0.233368 2.030518 
0.196962 0.208592 2.152597 
0.173573 0.183685 2.263308 
0.150216 0.158812 2.364494 
0.127048 0.134141 2.453164 
0.104227 0.109839 2.529261 
0.070330 0.095650 2.592452 
0.051732 0.070051 2.642408 
0.055104 0.074690 -2.455292 
0.093958 0.128168 -2.446898 
0.136321 0.186476 -2.439316 
0.176575 0.241881 -2.433408 
0.230256 0.315768 -2.426353 
0.272658 0.374129 -2.419610 
0.316515 0.434494 -2.412140 
0.335432 0.460532 -2.403976 
0.338781 0.465140 -2.341302 
0.341751 0.469228 -2.295373 
0.344381 0.472848 -2.246545 
0.346706 0.476048 -2.194975 
0.348764 0.478881 -2.140820 
0.350592 0.481397 -2.084238 
0.352225 0.483645 -2.025387 
0.353702 0.485677 -1.964423 
0.355058 0.487544 -1.901504 
0.356331 0.489296 -1.836788 
0.357557 0.490983 -1.770433 
0.358772 0.492656 -1.702595 
0.360015 0.494366 -1.633432 
0.360027 0.494383 -1.540840 
0.353254 0.485060 -1.492707 
0.356577 0.489635 -1.431039 
0.362440 0.497704 -1.366064 
0.366622 0.503461 -1.277793 
0.368473 0.506008 -1.217915 
0.370044 0.508170 -1.154444 
0.371346 0.509962 -1.087883 
0.372391 0.511401 -1.018734 
0.373190 0.512501 -0.947499 
0.373755 0.513278 -0.874681 
0.374096 0.513748 -0.800781 
0.374226 0.513926 -0.726303 
0.374155 0.513829 -0.651748 
0.373896 0.513472 -0.577619 
0.373458 0.512870 -0.504419 
0.372854 0.512039 -0.432648 
0.372096 0.510994 -0.362811 
0.371193 0.509752 -0.295408 
0.370158 0.508328 -0.230943 
0.369003 0.506737 -0.169918 
0.367738 0.504996 -0.112834 
0.366374 0.503119 -0.060195 
0.364924 0.501123 -0.012502 
0.363398 0.499023 0.029741 
0.353461 0.485345 0.255544 
0.341938 0.469486 0.473534 
0.328965 0.451630 0.683388 
0.314676 0.431963 0.884782 
0.299206 0.410670 1.077394 
0.282688 0.387936 1.260899 
0.265258 0.363945 1.434974 
0.247050 0.338883 1.599298 
0.228197 0.312935 1.753544 
0.208836 0.286286 1.897393 
0.189099 0.259121 2.030518 
0.169121 0.231624 2.152597 
0.149038 0.203982 2.263308 
0.128982 0.176378 2.364494 
0.109090 0.148998 2.453164 
0.089494 0.122027 2.529261 
0.045164 0.080999 -2.455292 
0.077009 0.138925 -2.446898 
0.111730 0.202082 -2.439316 
0.144722 0.262095 -2.433408 
0.188720 0.342127 -2.426353 
0.223472 0.405342 -2.419610 
0.259418 0.470728 -2.412140 
0.274923 0.498932 -2.403976 
0.277667 0.503923 -2.341302 
0.280102 0.508352 -2.295373 
0.282257 0.512272 -2.246545 
0.284163 0.515739 -2.194975 
0.285850 0.518808 -2.140820 
0.287348 0.521532 -2.084238 
0.288687 0.523968 -2.025387 
0.289897 0.526169 -1.964423 
0.291008 0.528191 -1.901504 
0.292051 0.530088 -1.836788 
0.293056 0.531916 -1.770433 
0.294052 0.533728 -1.702595 
0.295071 0.535581 -1.633432 
0.295081 0.535599 -1.540840 
0.289529 0.525501 -1.492707 
0.292253 0.530455 -1.431039 
0.297058 0.539196 -1.366064 
0.300486 0.545432 -1.277793 
0.302003 0.548191 -1.217915 
0.303291 0.550533 -1.154444 
0.304358 0.552474 -1.087883 
0.305214 0.554032 -1.018734 
0.305869 0.555223 -0.947499 
0.306332 0.556065 -0.874681 
0.306612 0.556574 -0.800781 
0.306718 0.556768 -0.726303 
0.306660 0.556662 -0.651748 
0.306448 0.556275 -0.577619 
0.306089 0.555623 -0.504419 
0.305594 0.554723 -0.432648 
0.304972 0.553592 -0.362811 
0.304233 0.552246 -0.295408 
0.303385 0.550704 -0.230943 
0.302437 0.548981 -0.169918 
0.301401 0.547095 -0.112834 
0.300283 0.545062 -0.060195 
0.299094 0.542900 -0.012502 
0.297844 0.540625 0.029741 
0.289699 0.525809 0.255544 
0.280255 0.508631 0.473534 
0.269622 0.489290 0.683388 
0.257911 0.467988 0.884782 
0.245231 0.444923 1.077394 
0.231694 0.420298 1.260899 
0.217408 0.394312 1.434974 
0.202484 0.367166 1.599298 
0.187032 0.339060 1.753544 
0.171163 0.310194 1.897393 
0.154987 0.280769 2.030518 
0.138613 0.250985 2.152597 
0.122152 0.221044 2.263308 
0.105715 0.191144 2.364494 
0.089411 0.161487 2.453164 
0.073350 0.132272 2.529261 
0.044047 0.110099 2.592452 
0.011030 0.086166 2.642408 
0.034512 0.086011 -2.455292 
0.058846 0.147472 -2.446898 
0.085377 0.214482 -2.439316 
0.110588 0.278158 -2.433409 
0.144208 0.363073 -2.426353 
0.170763 0.430145 -2.419610 
0.198231 0.499521 -2.412140 
0.210078 0.529445 -2.403976 
0.212175 0.534741 -2.341302 
0.214035 0.539440 -2.295373 
0.215682 0.543600 -2.246545 
0.217139 0.547278 -2.194975 
0.218428 0.550534 -2.140820 
0.219572 0.553425 -2.084238 
0.220595 0.556009 -2.025387 
0.221520 0.558344 -1.964423 
0.222370 0.560490 -1.901504 
0.223167 0.562503 -1.836789 
0.223934 0.564442 -1.770433 
0.224696 0.566365 -1.702595 
0.225474 0.568330 -1.633432 
0.225482 0.568350 -1.540840 
0.221239 0.557635 -1.492707 
0.223321 0.562892 -1.431040 
0.226993 0.572167 -1.366064 
0.229612 0.578782 -1.277793 
0.230771 0.581710 -1.217915 
0.231755 0.584195 -1.154444 
0.232570 0.586254 -1.087883 
0.233225 0.587907 -1.018734 
0.233725 0.589172 -0.947499 
0.234079 0.590065 -0.874681 
0.234293 0.590605 -0.800781 
0.234374 0.590810 -0.726303 
0.234330 0.590698 -0.651748 
0.234167 0.590288 -0.577620 
0.233893 0.589596 -0.504419 
0.233515 0.588641 -0.432648 
0.233040 0.587440 -0.362811 
0.232475 0.586013 -0.295409 
0.231827 0.584376 -0.230943 
0.231103 0.582548 -0.169918 
0.230311 0.580547 -0.112834 
0.229457 0.578390 -0.060195 
0.228548 0.576096 -0.012502 
0.227593 0.573682 0.029741 
0.221369 0.557963 0.255544 
0.214153 0.539736 0.473534 
0.206028 0.519215 0.683388 
0.197079 0.496613 0.884782 
0.187390 0.472141 1.077393 
0.177045 0.446014 1.260899 
0.166129 0.418442 1.434974 
0.154725 0.389639 1.599298 
0.142918 0.359818 1.753544 
0.130792 0.329191 1.897393 
0.118431 0.297971 2.030518 
0.105919 0.266370 2.152597 
0.093341 0.234601 2.263308 
0.080780 0.202877 2.364494 
0.068322 0.171410 2.453164 
0.056049 0.140413 2.529261 
0.023315 0.089649 -2.455292 
0.039754 0.153675 -2.446898 
0.057678 0.223483 -2.439316 
0.074708 0.289816 -2.433409 
0.097421 0.378274 -2.426353 
0.115361 0.448146 -2.419610 
0.133916 0.520418 -2.412140 
0.141920 0.551591 -2.403976 
0.143337 0.557108 -2.341302 
0.144594 0.562003 -2.295373 
0.145706 0.566336 -2.246545 
0.146690 0.570168 -2.194975 
0.147561 0.573560 -2.140820 
0.148334 0.576571 -2.084238 
0.149025 0.579263 -2.025387 
0.149650 0.581696 -1.964423 
0.150224 0.583931 -1.901504 
0.150762 0.586028 -1.836789 
0.151281 0.588048 -1.770433 
0.151795 0.590052 -1.702595 
0.152321 0.592099 -1.633432 
0.152326 0.592119 -1.540840 
0.149460 0.580958 -1.492707 
0.150866 0.586434 -1.431040 
0.153347 0.596095 -1.366064 
0.155116 0.602987 -1.277793 
0.155899 0.606037 -1.217915 
0.156564 0.608625 -1.154444 
0.157115 0.610771 -1.087883 
0.157557 0.612493 -1.018734 
0.157895 0.613810 -0.947499 
0.158134 0.614740 -0.874681 
0.158279 0.615303 -0.800781 
0.158334 0.615517 -0.726303 
0.158304 0.615401 -0.651749 
0.158194 0.614973 -0.577620 
0.158009 0.614252 -0.504419 
0.157753 0.613257 -0.432649 
0.157432 0.612007 -0.362811 
0.157050 0.610520 -0.295409 
0.156613 0.608815 -0.230943 
0.156124 0.606910 -0.169918 
0.155588 0.604825 -0.112834 
0.155011 0.602579 -0.060195 
0.154398 0.600189 -0.012502 
0.153752 0.597675 0.029741 
0.149548 0.581299 0.255544 
0.144673 0.562311 0.473534 
0.139184 0.540934 0.683388 
0.133138 0.517388 0.884782 
0.126593 0.491895 1.077393 
0.119604 0.464677 1.260899 
0.112230 0.435955 1.434974 
0.104526 0.405950 1.599298 
0.096549 0.374884 1.753544 
0.088357 0.342979 1.897393 
0.080007 0.310456 2.030518 
0.071554 0.277536 2.152597 
0.063057 0.244441 2.263308 
0.054572 0.211393 2.364494 
0.046155 0.178612 2.453164 
0.037864 0.146322 2.529261 
0.014996 0.117558 2.592452 
0.011751 0.091855 -2.455292 
0.020036 0.157436 -2.446898 
0.029069 0.228940 -2.439316 
0.037652 0.296884 -2.433409 
0.049098 0.387492 -2.426353 
0.058139 0.459062 -2.419610 
0.067491 0.533089 -2.412140 
0.071524 0.565019 -2.403976 
0.072238 0.570670 -2.341302 
0.072871 0.575684 -2.295373 
0.073432 0.580123 -2.246545 
0.073928 0.584048 -2.194975 
0.074367 0.587522 -2.140820 
0.074757 0.590607 -2.084238 
0.075105 0.593364 -2.025387 
0.075420 0.595856 -1.964423 
0.075709 0.598145 -1.901504 
0.075980 0.600294 -1.836789 
0.076242 0.602363 -1.770433 
0.076501 0.604415 -1.702595 
0.076766 0.606511 -1.633432 
0.076768 0.606533 -1.540840 
0.075324 0.595100 -1.492707 
0.076033 0.600709 -1.431040 
0.077283 0.610605 -1.366064 
0.078175 0.617665 -1.277794 
0.078569 0.620788 -1.217915 
0.078904 0.623440 -1.154444 
0.079182 0.625638 -1.087883 
0.079405 0.627401 -1.018734 
0.079575 0.628750 -0.947499 
0.079695 0.629703 -0.874681 
0.079768 0.630280 -0.800781 
0.079796 0.630499 -0.726303 
0.079781 0.630380 -0.651749 
0.079725 0.629941 -0.577620 
0.079632 0.629203 -0.504419 
0.079503 0.628184 -0.432649 
0.079342 0.626903 -0.362811 
0.079149 0.625380 -0.295409 
0.078929 0.623633 -0.230943 
0.078682 0.621683 -0.169918 
0.078412 0.619547 -0.112834 
0.078122 0.617246 -0.060195 
0.077812 0.614798 -0.012502 
0.077487 0.612223 0.029741 
0.075368 0.595449 0.255544 
0.072911 0.576001 0.473534 
0.070145 0.554104 0.683388 
0.067098 0.529986 0.884782 
0.063799 0.503874 1.077393 
0.060277 0.475994 1.260899 
0.056561 0.446574 1.434974 
0.052678 0.415840 1.599298 
0.048658 0.384020 1.753544 
0.044530 0.351339 1.897393 
0.040321 0.318026 2.030518 
0.036061 0.284306 2.152597 
0.031779 0.250408 2.263308 
0.027503 0.216556 2.364494 
0.023261 0.182980 2.453164 
0.019082 0.149905 2.529261 
0.472495 0.389730 0.096910 
0.517760 0.327428 0.096910 
0.554859 0.259946 0.096910 
0.583208 0.188345 0.096910 
0.602359 0.113755 0.096910 
0.612012 0.037353 0.096910 
0.612012 -0.039655 0.096910 
0.602360 -0.116057 0.096910 
0.583209 -0.190647 0.096910 
0.554859 -0.262248 0.096910 
0.517761 -0.329731 0.096910 
0.472496 -0.392033 0.096910 
0.419780 -0.448170 0.096910 
0.360444 -0.497257 0.096910 
0.295423 -0.538521 0.096910 
0.225744 -0.571310 0.096910 
0.152503 -0.595107 0.096910 
0.076859 -0.609537 0.096910 
0.000002 -0.614373 0.096910 
-0.076855 -0.609537 0.096910 
-0.152500 -0.595108 0.096910 
-0.225740 -0.571310 0.096910 
-0.295420 -0.538522 0.096910 
-0.360440 -0.497258 0.096910 
-0.419777 -0.448171 0.096910 
-0.472493 -0.392034 0.096910 
-0.517758 -0.329733 0.096910 
-0.554857 -0.262250 0.096910 
-0.583206 -0.190649 0.096910 
-0.602358 -0.116059 0.096910 
-0.612010 -0.039657 0.096910 
-0.612010 0.037351 0.096910 
-0.602358 0.113753 0.096910 
-0.583207 0.188343 0.096910 
-0.554858 0.259944 0.096910 
-0.517759 0.327427 0.096910 
-0.472494 0.389729 0.096910 
-0.419778 0.445866 0.096910 
-0.360442 0.494953 0.096910 
-0.295421 0.536217 0.096910 
-0.225742 0.569006 0.096910 
-0.152502 0.592803 0.096910 
-0.076857 0.607233 0.096910 
0.000000 0.612069 0.096910 
0.076857 0.607233 0.096910 
0.152501 0.592804 0.096910 
0.225742 0.569006 0.096910 
0.295421 0.536218 0.096910 
0.360442 0.494954 0.096910 
0.419778 0.445867 0.096910 
0.467781 0.385831 0.178616 
0.512594 0.324150 0.178616 
0.549323 0.257341 0.178616 
0.577389 0.186454 0.178616 
0.596350 0.112608 0.178616 
0.605906 0.036969 0.178616 
0.605906 -0.039271 0.178616 
0.596350 -0.114910 0.178616 
0.577390 -0.188756 0.178616 
0.549324 -0.259643 0.178616 
0.512595 -0.326453 0.178616 
0.467782 -0.388133 0.178616 
0.415592 -0.443710 0.178616 
0.356848 -0.492308 0.178616 
0.292476 -0.533160 0.178616 
0.223491 -0.565622 0.178616 
0.150982 -0.589181 0.178616 
0.076092 -0.603468 0.178616 
0.000002 -0.608255 0.178616 
-0.076089 -0.603468 0.178616 
-0.150979 -0.589182 0.178616 
-0.223488 -0.565622 0.178616 
-0.292473 -0.533161 0.178616 
-0.356844 -0.492309 0.178616 
-0.415589 -0.443712 0.178616 
-0.467779 -0.388135 0.178616 
-0.512592 -0.326455 0.178616 
-0.549322 -0.259645 0.178616 
-0.577388 -0.188758 0.178616 
-0.596349 -0.114912 0.178616 
-0.605904 -0.039273 0.178616 
-0.605904 0.036967 0.178616 
-0.596349 0.112607 0.178616 
-0.577389 0.186452 0.178616 
-0.549323 0.257339 0.178616 
-0.512593 0.324149 0.178616 
-0.467780 0.385830 0.178616 
-0.415590 0.441407 0.178616 
-0.356846 0.490004 0.178616 
-0.292474 0.530856 0.178616 
-0.223489 0.563318 0.178616 
-0.150981 0.586877 0.178616 
-0.076090 0.601164 0.178616 
0.000000 0.605951 0.178616 
0.076090 0.601164 0.178616 
0.150980 0.586878 0.178616 
0.223489 0.563318 0.178616 
0.292474 0.530857 0.178616 
0.356846 0.490005 0.178616 
0.415590 0.441408 0.178616 
0.458554 0.378197 0.324663 
0.502483 0.317733 0.324663 
0.538488 0.252242 0.324663 
0.566000 0.182753 0.324663 
0.584586 0.110364 0.324663 
0.593953 0.036218 0.324663 
0.593953 -0.038520 0.324663 
0.584586 -0.112666 0.324663 
0.566001 -0.185055 0.324663 
0.538488 -0.254544 0.324663 
0.502484 -0.320036 0.324663 
0.458555 -0.380500 0.324663 
0.407394 -0.434980 0.324663 
0.349808 -0.482620 0.324663 
0.286706 -0.522665 0.324663 
0.219083 -0.554487 0.324663 
0.148003 -0.577582 0.324663 
0.074591 -0.591586 0.324663 
0.000002 -0.596279 0.324663 
-0.074588 -0.591587 0.324663 
-0.148000 -0.577582 0.324663 
-0.219080 -0.554488 0.324663 
-0.286704 -0.522666 0.324663 
-0.349806 -0.482621 0.324663 
-0.407391 -0.434982 0.324663 
-0.458552 -0.380501 0.324663 
-0.502481 -0.320037 0.324663 
-0.538486 -0.254545 0.324663 
-0.565999 -0.185057 0.324663 
-0.584585 -0.112668 0.324663 
-0.593953 -0.038521 0.324663 
-0.593953 0.036216 0.324663 
-0.584585 0.110363 0.324663 
-0.566000 0.182751 0.324663 
-0.538487 0.252240 0.324663 
-0.502482 0.317732 0.324663 
-0.458553 0.378196 0.324663 
-0.407392 0.432677 0.324663 
-0.349807 0.480316 0.324663 
-0.286705 0.520361 0.324663 
-0.219081 0.552183 0.324663 
-0.148002 0.575278 0.324663 
-0.074589 0.589282 0.324663 
0.000000 0.593975 0.324663 
0.074589 0.589283 0.324663 
0.148002 0.575278 0.324663 
0.219081 0.552184 0.324663 
0.286705 0.520362 0.324663 
0.349807 0.480317 0.324663 
0.407392 0.432678 0.324663 
0.453356 0.373897 0.399676 
0.496787 0.314119 0.399676 
0.532384 0.249370 0.399676 
0.559584 0.180669 0.399676 
0.577960 0.109100 0.399676 
0.587221 0.035794 0.399676 
0.587221 -0.038096 0.399676 
0.577960 -0.111402 0.399676 
0.559585 -0.182971 0.399676 
0.532385 -0.251672 0.399676 
0.496788 -0.316422 0.399676 
0.453357 -0.376200 0.399676 
0.402776 -0.430063 0.399676 
0.345843 -0.477162 0.399676 
0.283456 -0.516754 0.399676 
0.216599 -0.548215 0.399676 
0.146326 -0.571048 0.399676 
0.073745 -0.584894 0.399676 
0.000001 -0.589534 0.399676 
-0.073742 -0.584894 0.399676 
-0.146323 -0.571048 0.399676 
-0.216596 -0.548216 0.399676 
-0.283454 -0.516755 0.399676 
-0.345841 -0.477163 0.399676 
-0.402774 -0.430064 0.399676 
-0.453354 -0.376201 0.399676 
-0.496786 -0.316423 0.399676 
-0.532383 -0.251673 0.399676 
-0.559583 -0.182973 0.399676 
-0.577959 -0.111404 0.399676 
-0.587220 -0.038097 0.399676 
-0.587220 0.035792 0.399676 
-0.577959 0.109099 0.399676 
-0.559584 0.180667 0.399676 
-0.532384 0.249368 0.399676 
-0.496787 0.314118 0.399676 
-0.453355 0.373896 0.399676 
-0.402775 0.427759 0.399676 
-0.345842 0.474858 0.399676 
-0.283455 0.514450 0.399676 
-0.216598 0.545911 0.399676 
-0.146325 0.568744 0.399676 
-0.073743 0.582590 0.399676 
0.000000 0.587230 0.399676 
0.073743 0.582590 0.399676 
0.146325 0.568744 0.399676 
0.216598 0.545912 0.399676 
0.283455 0.514451 0.399676 
0.345842 0.474859 0.399676 
0.402775 0.427761 0.399676 
0.443477 0.365726 0.532280 
0.485962 0.307249 0.532280 
0.520784 0.243911 0.532280 
0.547392 0.176707 0.532280 
0.565367 0.106698 0.532280 
0.574426 0.034989 0.532280 
0.574426 -0.037291 0.532280 
0.565367 -0.109000 0.532280 
0.547392 -0.179010 0.532280 
0.520785 -0.246213 0.532280 
0.485963 -0.309552 0.532280 
0.443478 -0.368028 0.532280 
0.394000 -0.420717 0.532280 
0.338307 -0.466790 0.532280 
0.277280 -0.505520 0.532280 
0.211880 -0.536295 0.532280 
0.143137 -0.558631 0.532280 
0.072138 -0.572175 0.532280 
0.000001 -0.576714 0.532280 
-0.072136 -0.572175 0.532280 
-0.143135 -0.558631 0.532280 
-0.211877 -0.536295 0.532280 
-0.277278 -0.505521 0.532280 
-0.338305 -0.466791 0.532280 
-0.393998 -0.420718 0.532280 
-0.443476 -0.368029 0.532280 
-0.485961 -0.309553 0.532280 
-0.520783 -0.246214 0.532280 
-0.547390 -0.179011 0.532280 
-0.565366 -0.109002 0.532280 
-0.574425 -0.037292 0.532280 
-0.574425 0.034987 0.532280 
-0.565366 0.106696 0.532280 
-0.547391 0.176706 0.532280 
-0.520783 0.243909 0.532280 
-0.485962 0.307248 0.532280 
-0.443477 0.365724 0.532280 
-0.393999 0.418413 0.532280 
-0.338306 0.464486 0.532280 
-0.277279 0.503216 0.532280 
-0.211879 0.533991 0.532280 
-0.143136 0.556327 0.532280 
-0.072137 0.569870 0.532280 
0.000000 0.574409 0.532280 
0.072137 0.569871 0.532280 
0.143136 0.556327 0.532280 
0.211879 0.533991 0.532280 
0.277278 0.503217 0.532280 
0.338306 0.464487 0.532280 
0.393999 0.418415 0.532280 
0.436402 0.359872 0.619595 
0.478209 0.302329 0.619595 
0.512475 0.240001 0.619595 
0.538658 0.173869 0.619595 
0.556346 0.104977 0.619595 
0.565261 0.034412 0.619595 
0.565261 -0.036714 0.619595 
0.556346 -0.107280 0.619595 
0.538659 -0.176172 0.619595 
0.512476 -0.242304 0.619595 
0.478210 -0.304632 0.619595 
0.436403 -0.362174 0.619595 
0.387714 -0.414024 0.619595 
0.332910 -0.459361 0.619595 
0.272856 -0.497472 0.619595 
0.208499 -0.527757 0.619595 
0.140854 -0.549736 0.619595 
0.070987 -0.563064 0.619595 
0.000001 -0.567530 0.619595 
-0.070985 -0.563064 0.619595 
-0.140851 -0.549736 0.619595 
-0.208497 -0.527757 0.619595 
-0.272854 -0.497473 0.619595 
-0.332908 -0.459362 0.619595 
-0.387712 -0.414025 0.619595 
-0.436401 -0.362175 0.619595 
-0.478208 -0.304633 0.619595 
-0.512474 -0.242305 0.619595 
-0.538657 -0.176173 0.619595 
-0.556345 -0.107281 0.619595 
-0.565260 -0.036716 0.619595 
-0.565260 0.034410 0.619595 
-0.556345 0.104976 0.619595 
-0.538658 0.173868 0.619595 
-0.512474 0.240000 0.619595 
-0.478209 0.302328 0.619595 
-0.436402 0.359870 0.619595 
-0.387713 0.411720 0.619595 
-0.332909 0.457057 0.619595 
-0.272855 0.495168 0.619595 
-0.208498 0.525453 0.619595 
-0.140853 0.547432 0.619595 
-0.070986 0.560760 0.619595 
0.000000 0.565226 0.619595 
0.070986 0.560760 0.619595 
0.140853 0.547432 0.619595 
0.208498 0.525453 0.619595 
0.272854 0.495169 0.619595 
0.332909 0.457058 0.619595 
0.387713 0.411721 0.619595 
0.426111 0.351359 0.738450 
0.466932 0.295173 0.738450 
0.500390 0.234314 0.738450 
0.525956 0.169742 0.738450 
0.543227 0.102475 0.738450 
0.551932 0.033574 0.738450 
0.551932 -0.035876 0.738450 
0.543227 -0.104778 0.738450 
0.525957 -0.172045 0.738450 
0.500391 -0.236617 0.738450 
0.466933 -0.297476 0.738450 
0.426112 -0.353661 0.738450 
0.378571 -0.404288 0.738450 
0.325059 -0.448556 0.738450 
0.266422 -0.485769 0.738450 
0.203582 -0.515339 0.738450 
0.137532 -0.536800 0.738450 
0.069313 -0.549814 0.738450 
0.000001 -0.554175 0.738450 
-0.069311 -0.549814 0.738450 
-0.137530 -0.536800 0.738450 
-0.203580 -0.515339 0.738450 
-0.266420 -0.485770 0.738450 
-0.325057 -0.448557 0.738450 
-0.378569 -0.404289 0.738450 
-0.426110 -0.353663 0.738450 
-0.466931 -0.297477 0.738450 
-0.500389 -0.236618 0.738450 
-0.525955 -0.172046 0.738450 
-0.543226 -0.104779 0.738450 
-0.551931 -0.035878 0.738450 
-0.551931 0.033572 0.738450 
-0.543227 0.102474 0.738450 
-0.525956 0.169741 0.738450 
-0.500389 0.234313 0.738450 
-0.466932 0.295172 0.738450 
-0.426111 0.351358 0.738450 
-0.378570 0.401984 0.738450 
-0.325058 0.446252 0.738450 
-0.266421 0.483465 0.738450 
-0.203581 0.513035 0.738450 
-0.137531 0.534496 0.738450 
-0.069312 0.547510 0.738450 
0.000000 0.551871 0.738450 
0.069312 0.547510 0.738450 
0.137531 0.534496 0.738450 
0.203581 0.513035 0.738450 
0.266420 0.483466 0.738450 
0.325058 0.446253 0.738450 
0.378570 0.401985 0.738450 
0.419452 0.345850 0.810053 
0.459635 0.290541 0.810053 
0.492570 0.230634 0.810053 
0.517736 0.167071 0.810053 
0.534737 0.100855 0.810053 
0.543306 0.033031 0.810053 
0.543306 -0.035333 0.810053 
0.534737 -0.103158 0.810053 
0.517737 -0.169374 0.810053 
0.492570 -0.232937 0.810053 
0.459636 -0.292844 0.810053 
0.419452 -0.348152 0.810053 
0.372655 -0.397987 0.810053 
0.319979 -0.441564 0.810053 
0.262258 -0.478195 0.810053 
0.200401 -0.507303 0.810053 
0.135383 -0.528429 0.810053 
0.068230 -0.541239 0.810053 
0.000001 -0.545531 0.810053 
-0.068228 -0.541239 0.810053 
-0.135380 -0.528429 0.810053 
-0.200399 -0.507304 0.810053 
-0.262256 -0.478196 0.810053 
-0.319977 -0.441565 0.810053 
-0.372653 -0.397989 0.810053 
-0.419451 -0.348154 0.810053 
-0.459634 -0.292846 0.810053 
-0.492569 -0.232938 0.810053 
-0.517735 -0.169375 0.810053 
-0.534737 -0.103159 0.810053 
-0.543305 -0.035335 0.810053 
-0.543305 0.033029 0.810053 
-0.534737 0.100854 0.810053 
-0.517736 0.167070 0.810053 
-0.492569 0.230633 0.810053 
-0.459635 0.290540 0.810053 
-0.419452 0.345849 0.810053 
-0.372654 0.395684 0.810053 
-0.319978 0.439260 0.810053 
-0.262257 0.475891 0.810053 
-0.200400 0.504999 0.810053 
-0.135382 0.526125 0.810053 
-0.068229 0.538935 0.810053 
0.000000 0.543228 0.810053 
0.068229 0.538935 0.810053 
0.135381 0.526125 0.810053 
0.200400 0.505000 0.810053 
0.262256 0.475892 0.810053 
0.319978 0.439261 0.810053 
0.372654 0.395685 0.810053 
0.407464 0.335932 0.932632 
0.446499 0.282204 0.932632 
0.478492 0.224010 0.932632 
0.502939 0.162264 0.932632 
0.519454 0.097940 0.932632 
0.527778 0.032053 0.932632 
0.527778 -0.034356 0.932632 
0.519454 -0.100243 0.932632 
0.502939 -0.164566 0.932632 
0.478492 -0.226312 0.932632 
0.446499 -0.284508 0.932632 
0.407464 -0.338234 0.932632 
0.362004 -0.386646 0.932632 
0.310834 -0.428976 0.932632 
0.254762 -0.464561 0.932632 
0.194673 -0.492837 0.932631 
0.131514 -0.513359 0.932631 
0.066279 -0.525803 0.932631 
0.000001 -0.529973 0.932631 
-0.066278 -0.525803 0.932631 
-0.131511 -0.513359 0.932631 
-0.194671 -0.492838 0.932631 
-0.254761 -0.464561 0.932631 
-0.310832 -0.428977 0.932631 
-0.362002 -0.386646 0.932631 
-0.407463 -0.338236 0.932631 
-0.446497 -0.284509 0.932631 
-0.478491 -0.226314 0.932631 
-0.502938 -0.164568 0.932631 
-0.519453 -0.100244 0.932631 
-0.527777 -0.034357 0.932631 
-0.527777 0.032052 0.932631 
-0.519454 0.097939 0.932631 
-0.502938 0.162262 0.932631 
-0.478492 0.224008 0.932631 
-0.446498 0.282204 0.932631 
-0.407464 0.335931 0.932631 
-0.362003 0.384342 0.932631 
-0.310833 0.426673 0.932631 
-0.254762 0.462257 0.932631 
-0.194672 0.490533 0.932631 
-0.131513 0.511055 0.932631 
-0.066279 0.523499 0.932631 
0.000000 0.527669 0.932631 
0.066278 0.523499 0.932631 
0.131512 0.511055 0.932631 
0.194672 0.490534 0.932631 
0.254761 0.462258 0.932632 
0.310833 0.426673 0.932632 
0.362003 0.384343 0.932632 
0.400454 0.330133 0.999211 
0.438817 0.277330 0.999211 
0.470260 0.220136 0.999211 
0.494286 0.159452 0.999211 
0.510517 0.096235 0.999211 
0.518698 0.031482 0.999211 
0.518698 -0.033785 0.999211 
0.510518 -0.098538 0.999211 
0.494287 -0.161755 0.999211 
0.470260 -0.222439 0.999211 
0.438817 -0.279633 0.999211 
0.400454 -0.332435 0.999211 
0.355776 -0.380014 0.999211 
0.305486 -0.421616 0.999211 
0.250380 -0.456589 0.999211 
0.191324 -0.484378 0.999211 
0.129251 -0.504547 0.999211 
0.065139 -0.516777 0.999211 
0.000001 -0.520875 0.999211 
-0.065138 -0.516777 0.999211 
-0.129249 -0.504547 0.999211 
-0.191322 -0.484378 0.999211 
-0.250378 -0.456589 0.999211 
-0.305484 -0.421617 0.999211 
-0.355774 -0.380014 0.999211 
-0.400453 -0.332437 0.999211 
-0.438816 -0.279635 0.999211 
-0.470259 -0.222440 0.999211 
-0.494286 -0.161756 0.999211 
-0.510517 -0.098539 0.999211 
-0.518697 -0.033786 0.999211 
-0.518697 0.031481 0.999211 
-0.510517 0.096234 0.999211 
-0.494286 0.159451 0.999211 
-0.470260 0.220135 0.999211 
-0.438816 0.277329 0.999211 
-0.400454 0.330132 0.999211 
-0.355775 0.377710 0.999211 
-0.305485 0.419313 0.999211 
-0.250379 0.454285 0.999211 
-0.191323 0.482074 0.999211 
-0.129250 0.502243 0.999211 
-0.065139 0.514473 0.999211 
0.000000 0.518571 0.999211 
0.065138 0.514473 0.999211 
0.129250 0.502243 0.999211 
0.191323 0.482074 0.999211 
0.250378 0.454285 0.999211 
0.305485 0.419313 0.999211 
0.355775 0.377711 0.999211 
0.396083 0.326517 1.040728 
0.434027 0.274290 1.040728 
0.465126 0.217720 1.040728 
0.488891 0.157699 1.040728 
0.504945 0.095172 1.040728 
0.513036 0.031126 1.040728 
0.513036 -0.033429 1.040728 
0.504945 -0.097475 1.040728 
0.488891 -0.160001 1.040728 
0.465127 -0.220023 1.040728 
0.434027 -0.276594 1.040728 
0.396083 -0.328820 1.040728 
0.351892 -0.375878 1.040728 
0.302152 -0.417026 1.040728 
0.247647 -0.451618 1.040728 
0.189235 -0.479103 1.040727 
0.127840 -0.499052 1.040727 
0.064428 -0.511149 1.040727 
0.000001 -0.515202 1.040727 
-0.064427 -0.511149 1.040727 
-0.127838 -0.499052 1.040727 
-0.189233 -0.479104 1.040727 
-0.247645 -0.451618 1.040727 
-0.302150 -0.417027 1.040727 
-0.351891 -0.375878 1.040727 
-0.396082 -0.328821 1.040727 
-0.434026 -0.276595 1.040727 
-0.465126 -0.220024 1.040727 
-0.488890 -0.160003 1.040727 
-0.504944 -0.097476 1.040727 
-0.513035 -0.033430 1.040727 
-0.513035 0.031125 1.040727 
-0.504945 0.095171 1.040727 
-0.488890 0.157697 1.040727 
-0.465126 0.217719 1.040727 
-0.434026 0.274289 1.040727 
-0.396083 0.326516 1.040727 
-0.351892 0.373574 1.040727 
-0.302151 0.414723 1.040727 
-0.247646 0.449314 1.040727 
-0.189234 0.476799 1.040727 
-0.127839 0.496748 1.040727 
-0.064428 0.508845 1.040727 
0.000000 0.512898 1.040727 
0.064427 0.508845 1.040727 
0.127839 0.496748 1.040727 
0.189234 0.476800 1.040727 
0.247645 0.449314 1.040728 
0.302151 0.414723 1.040728 
0.351891 0.373575 1.040728 
0.386319 0.318440 1.127419 
0.423329 0.267500 1.127419 
0.453661 0.212325 1.127419 
0.476840 0.153784 1.127419 
0.492498 0.092797 1.127419 
0.500390 0.030330 1.127419 
0.500390 -0.032633 1.127419 
0.492499 -0.095100 1.127419 
0.476840 -0.156086 1.127419 
0.453662 -0.214628 1.127419 
0.423329 -0.269804 1.127419 
0.386320 -0.320743 1.127419 
0.343218 -0.366642 1.127419 
0.294704 -0.406776 1.127419 
0.241542 -0.440514 1.127419 
0.184571 -0.467322 1.127419 
0.124689 -0.486779 1.127419 
0.062840 -0.498578 1.127419 
0.000001 -0.502531 1.127419 
-0.062839 -0.498578 1.127419 
-0.124687 -0.486779 1.127419 
-0.184569 -0.467323 1.127419 
-0.241540 -0.440514 1.127419 
-0.294702 -0.406777 1.127419 
-0.343217 -0.366642 1.127419 
-0.386318 -0.320744 1.127419 
-0.423328 -0.269805 1.127419 
-0.453661 -0.214629 1.127419 
-0.476839 -0.156088 1.127419 
-0.492498 -0.095101 1.127419 
-0.500389 -0.032634 1.127419 
-0.500389 0.030329 1.127419 
-0.492498 0.092796 1.127419 
-0.476840 0.153782 1.127419 
-0.453661 0.212324 1.127419 
-0.423328 0.267500 1.127419 
-0.386319 0.318439 1.127419 
-0.343218 0.364338 1.127419 
-0.294703 0.404472 1.127419 
-0.241541 0.438210 1.127419 
-0.184570 0.465018 1.127419 
-0.124688 0.484475 1.127419 
-0.062840 0.496274 1.127419 
0.000000 0.500227 1.127419 
0.062839 0.496274 1.127419 
0.124688 0.484475 1.127419 
0.184570 0.465019 1.127419 
0.241541 0.438210 1.127419 
0.294703 0.404473 1.127419 
0.343217 0.364339 1.127419 
0.377612 0.311236 1.201213 
0.413787 0.261445 1.201213 
0.443436 0.207514 1.201213 
0.466093 0.150292 1.201213 
0.481398 0.090680 1.201213 
0.489112 0.029621 1.201213 
0.489112 -0.031924 1.201213 
0.481398 -0.092983 1.201213 
0.466093 -0.152594 1.201213 
0.443437 -0.209817 1.201213 
0.413787 -0.263749 1.201213 
0.377613 -0.313539 1.201213 
0.335483 -0.358404 1.201213 
0.288062 -0.397633 1.201213 
0.236098 -0.430611 1.201213 
0.180411 -0.456815 1.201213 
0.121878 -0.475834 1.201213 
0.061424 -0.487366 1.201213 
0.000001 -0.491231 1.201213 
-0.061423 -0.487366 1.201213 
-0.121877 -0.475834 1.201213 
-0.180409 -0.456816 1.201213 
-0.236096 -0.430611 1.201213 
-0.288060 -0.397634 1.201213 
-0.335482 -0.358404 1.201213 
-0.377611 -0.313540 1.201213 
-0.413786 -0.263750 1.201213 
-0.443436 -0.209818 1.201213 
-0.466092 -0.152596 1.201213 
-0.481398 -0.092984 1.201213 
-0.489111 -0.031925 1.201213 
-0.489111 0.029620 1.201213 
-0.481398 0.090679 1.201213 
-0.466092 0.150290 1.201213 
-0.443436 0.207513 1.201213 
-0.413787 0.261445 1.201213 
-0.377612 0.311235 1.201213 
-0.335482 0.356100 1.201213 
-0.288061 0.395330 1.201213 
-0.236097 0.428307 1.201213 
-0.180410 0.454511 1.201213 
-0.121878 0.473530 1.201213 
-0.061424 0.485062 1.201213 
0.000000 0.488927 1.201213 
0.061423 0.485062 1.201213 
0.121877 0.473530 1.201213 
0.180410 0.454512 1.201213 
0.236097 0.428307 1.201213 
0.288061 0.395330 1.201213 
0.335482 0.356101 1.201213 
0.354011 0.291711 1.387053 
0.387925 0.245033 1.387053 
0.415720 0.194472 1.387053 
0.436961 0.140826 1.387053 
0.451310 0.084940 1.387053 
0.458541 0.027698 1.387053 
0.458541 -0.030001 1.387053 
0.451310 -0.087243 1.387053 
0.436961 -0.143129 1.387053 
0.415721 -0.196775 1.387053 
0.387925 -0.247336 1.387053 
0.354011 -0.294014 1.387053 
0.314514 -0.336075 1.387053 
0.270057 -0.372853 1.387053 
0.221342 -0.403770 1.387053 
0.169134 -0.428336 1.387053 
0.114261 -0.446166 1.387053 
0.057584 -0.456977 1.387053 
0.000001 -0.460600 1.387053 
-0.057583 -0.456977 1.387053 
-0.114259 -0.446166 1.387053 
-0.169133 -0.428336 1.387053 
-0.221340 -0.403770 1.387053 
-0.270056 -0.372853 1.387053 
-0.314513 -0.336076 1.387053 
-0.354010 -0.294015 1.387053 
-0.387924 -0.247337 1.387053 
-0.415720 -0.196776 1.387053 
-0.436961 -0.143130 1.387053 
-0.451310 -0.087244 1.387053 
-0.458541 -0.030002 1.387053 
-0.458541 0.027697 1.387053 
-0.451310 0.084939 1.387053 
-0.436961 0.140825 1.387053 
-0.415721 0.194471 1.387053 
-0.387925 0.245032 1.387053 
-0.354011 0.291710 1.387053 
-0.314514 0.333771 1.387053 
-0.270057 0.370549 1.387053 
-0.221341 0.401466 1.387053 
-0.169134 0.426032 1.387053 
-0.114260 0.443862 1.387053 
-0.057584 0.454673 1.387053 
0.000000 0.458296 1.387053 
0.057584 0.454673 1.387053 
0.114260 0.443862 1.387053 
0.169134 0.426032 1.387053 
0.221341 0.401466 1.387053 
0.270056 0.370549 1.387053 
0.314513 0.333772 1.387053 
0.363132 0.299258 1.317559 
0.397920 0.251376 1.317559 
0.426432 0.199512 1.317559 
0.448220 0.144484 1.317559 
0.462939 0.087159 1.317559 
0.470357 0.028441 1.317559 
0.470357 -0.030744 1.317559 
0.462939 -0.089462 1.317559 
0.448220 -0.146787 1.317559 
0.426433 -0.201815 1.317559 
0.397921 -0.253679 1.317559 
0.363133 -0.301561 1.317559 
0.322618 -0.344705 1.317559 
0.277016 -0.382430 1.317559 
0.227045 -0.414144 1.317559 
0.173493 -0.439343 1.317559 
0.117205 -0.457632 1.317559 
0.059068 -0.468722 1.317559 
0.000001 -0.472439 1.317559 
-0.059067 -0.468722 1.317559 
-0.117203 -0.457632 1.317559 
-0.173492 -0.439344 1.317559 
-0.227043 -0.414144 1.317559 
-0.277015 -0.382431 1.317559 
-0.322618 -0.344705 1.317559 
-0.363132 -0.301562 1.317559 
-0.397920 -0.253680 1.317559 
-0.426432 -0.201816 1.317559 
-0.448219 -0.146788 1.317559 
-0.462939 -0.089463 1.317559 
-0.470356 -0.030745 1.317559 
-0.470356 0.028440 1.317559 
-0.462939 0.087158 1.317559 
-0.448220 0.144483 1.317559 
-0.426433 0.199511 1.317559 
-0.397920 0.251375 1.317559 
-0.363133 0.299257 1.317559 
-0.322618 0.342401 1.317559 
-0.277016 0.380126 1.317559 
-0.227044 0.411840 1.317559 
-0.173493 0.437039 1.317559 
-0.117204 0.455328 1.317559 
-0.059068 0.466418 1.317559 
0.000000 0.470135 1.317559 
0.059067 0.466418 1.317559 
0.117204 0.455328 1.317559 
0.173492 0.437039 1.317559 
0.227044 0.411840 1.317559 
0.277015 0.380127 1.317559 
0.322618 0.342402 1.317559 
0.340759 0.280749 1.482901 
0.373404 0.235818 1.482901 
0.400159 0.187149 1.482901 
0.420604 0.135511 1.482901 
0.434416 0.081718 1.482901 
0.441377 0.026618 1.482901 
0.441377 -0.028921 1.482901 
0.434416 -0.084021 1.482901 
0.420604 -0.137814 1.482901 
0.400160 -0.189452 1.482901 
0.373404 -0.238121 1.482901 
0.340759 -0.283052 1.482901 
0.302741 -0.323538 1.482901 
0.259948 -0.358939 1.482901 
0.213056 -0.388698 1.482901 
0.162803 -0.412345 1.482901 
0.109984 -0.429508 1.482901 
0.055429 -0.439914 1.482901 
0.000001 -0.443402 1.482901 
-0.055428 -0.439914 1.482901 
-0.109982 -0.429508 1.482901 
-0.162802 -0.412345 1.482901 
-0.213055 -0.388699 1.482901 
-0.259947 -0.358939 1.482901 
-0.302740 -0.323539 1.482901 
-0.340758 -0.283053 1.482901 
-0.373403 -0.238122 1.482901 
-0.400159 -0.189453 1.482901 
-0.420604 -0.137815 1.482901 
-0.434416 -0.084022 1.482901 
-0.441377 -0.028922 1.482901 
-0.441377 0.026617 1.482901 
-0.434416 0.081717 1.482901 
-0.420604 0.135510 1.482901 
-0.400160 0.187148 1.482901 
-0.373404 0.235817 1.482901 
-0.340759 0.280748 1.482901 
-0.302741 0.321234 1.482901 
-0.259948 0.356635 1.482901 
-0.213056 0.386394 1.482901 
-0.162803 0.410041 1.482901 
-0.109983 0.427204 1.482901 
-0.055429 0.437610 1.482901 
0.000000 0.441098 1.482901 
0.055428 0.437610 1.482901 
0.109983 0.427204 1.482901 
0.162803 0.410041 1.482901 
0.213055 0.386395 1.482901 
0.259947 0.356635 1.482901 
0.302740 0.321235 1.482901 
0.332432 0.273860 1.540231 
0.364279 0.230027 1.540231 
0.390380 0.182547 1.540231 
0.410325 0.132171 1.540231 
0.423800 0.079693 1.540231 
0.430590 0.025939 1.540231 
0.430590 -0.028242 1.540231 
0.423800 -0.081996 1.540231 
0.410326 -0.134475 1.540231 
0.390381 -0.184850 1.540231 
0.364279 -0.232330 1.540231 
0.332432 -0.276163 1.540231 
0.295343 -0.315659 1.540231 
0.253595 -0.350196 1.540231 
0.207850 -0.379227 1.540231 
0.158825 -0.402296 1.540231 
0.107296 -0.419039 1.540231 
0.054074 -0.429191 1.540231 
0.000000 -0.432594 1.540231 
-0.054073 -0.429191 1.540231 
-0.107295 -0.419039 1.540231 
-0.158824 -0.402296 1.540231 
-0.207849 -0.379228 1.540231 
-0.253595 -0.350196 1.540231 
-0.295342 -0.315660 1.540231 
-0.332431 -0.276164 1.540231 
-0.364278 -0.232331 1.540231 
-0.390380 -0.184851 1.540231 
-0.410325 -0.134475 1.540231 
-0.423800 -0.081997 1.540231 
-0.430590 -0.028243 1.540231 
-0.430590 0.025938 1.540231 
-0.423800 0.079692 1.540231 
-0.410325 0.132171 1.540231 
-0.390381 0.182547 1.540231 
-0.364279 0.230026 1.540231 
-0.332432 0.273859 1.540231 
-0.295343 0.313355 1.540231 
-0.253595 0.347892 1.540231 
-0.207849 0.376923 1.540231 
-0.158824 0.399992 1.540231 
-0.107295 0.416735 1.540231 
-0.054074 0.426888 1.540231 
0.000000 0.430290 1.540231 
0.054074 0.426888 1.540231 
0.107295 0.416735 1.540231 
0.158824 0.399992 1.540231 
0.207849 0.376924 1.540231 
0.253595 0.347892 1.540231 
0.295342 0.313356 1.540231 
0.316865 0.260982 1.642906 
0.347221 0.219201 1.642906 
0.372100 0.173945 1.642906 
0.391111 0.125928 1.642906 
0.403955 0.075907 1.642906 
0.410427 0.024671 1.642906 
0.410427 -0.026974 1.642906 
0.403955 -0.078210 1.642906 
0.391112 -0.128232 1.642906 
0.372100 -0.176248 1.642906 
0.347221 -0.221504 1.642906 
0.316865 -0.263285 1.642906 
0.281513 -0.300932 1.642906 
0.241720 -0.333851 1.642906 
0.198116 -0.361523 1.642906 
0.151388 -0.383512 1.642906 
0.102271 -0.399471 1.642906 
0.051542 -0.409148 1.642906 
0.000000 -0.412391 1.642906 
-0.051541 -0.409148 1.642906 
-0.102271 -0.399471 1.642906 
-0.151387 -0.383512 1.642906 
-0.198116 -0.361524 1.642906 
-0.241720 -0.333851 1.642906 
-0.281512 -0.300933 1.642906 
-0.316864 -0.263286 1.642906 
-0.347220 -0.221505 1.642906 
-0.372100 -0.176249 1.642906 
-0.391111 -0.128232 1.642906 
-0.403955 -0.078211 1.642906 
-0.410427 -0.026975 1.642906 
-0.410427 0.024670 1.642906 
-0.403955 0.075906 1.642906 
-0.391111 0.125928 1.642906 
-0.372100 0.173945 1.642906 
-0.347221 0.219200 1.642906 
-0.316865 0.260981 1.642906 
-0.281513 0.298628 1.642906 
-0.241720 0.331547 1.642906 
-0.198116 0.359219 1.642906 
-0.151387 0.381208 1.642906 
-0.102271 0.397167 1.642906 
-0.051542 0.406844 1.642906 
0.000000 0.410087 1.642906 
0.051541 0.406844 1.642906 
0.102271 0.397167 1.642906 
0.151387 0.381208 1.642906 
0.198115 0.359220 1.642906 
0.241720 0.331547 1.642906 
0.281512 0.298629 1.642906 
0.307865 0.253536 1.699082 
0.337358 0.212942 1.699082 
0.361531 0.168972 1.699082 
0.380002 0.122318 1.699082 
0.392480 0.073718 1.699082 
0.398769 0.023937 1.699082 
0.398769 -0.026240 1.699082 
0.392481 -0.076021 1.699082 
0.380002 -0.124622 1.699082 
0.361531 -0.171275 1.699082 
0.337358 -0.215245 1.699082 
0.307865 -0.255839 1.699082 
0.273516 -0.292417 1.699082 
0.234854 -0.324401 1.699082 
0.192489 -0.351287 1.699082 
0.147087 -0.372651 1.699082 
0.099366 -0.388157 1.699082 
0.050078 -0.397559 1.699082 
0.000000 -0.400710 1.699082 
-0.050077 -0.397559 1.699082 
-0.099366 -0.388157 1.699082 
-0.147087 -0.372651 1.699082 
-0.192488 -0.351287 1.699082 
-0.234854 -0.324401 1.699082 
-0.273516 -0.292417 1.699082 
-0.307864 -0.255840 1.699082 
-0.337358 -0.215246 1.699082 
-0.361531 -0.171276 1.699082 
-0.380002 -0.124622 1.699082 
-0.392480 -0.076022 1.699082 
-0.398769 -0.026241 1.699082 
-0.398769 0.023936 1.699082 
-0.392481 0.073717 1.699082 
-0.380002 0.122318 1.699082 
-0.361531 0.168971 1.699082 
-0.337358 0.212941 1.699082 
-0.307865 0.253535 1.699082 
-0.273516 0.290113 1.699082 
-0.234854 0.322097 1.699082 
-0.192489 0.348983 1.699082 
-0.147087 0.370347 1.699082 
-0.099366 0.385853 1.699082 
-0.050078 0.395255 1.699082 
0.000000 0.398406 1.699082 
0.050077 0.395255 1.699082 
0.099366 0.385853 1.699082 
0.147087 0.370347 1.699082 
0.192488 0.348984 1.699082 
0.234854 0.322097 1.699082 
0.273516 0.290113 1.699082 
0.283965 0.233765 1.839544 
0.311169 0.196322 1.839544 
0.333465 0.155765 1.839544 
0.350503 0.112734 1.839544 
0.362012 0.067906 1.839544 
0.367813 0.021989 1.839544 
0.367813 -0.024293 1.839544 
0.362013 -0.070209 1.839544 
0.350503 -0.115037 1.839544 
0.333465 -0.158068 1.839544 
0.311169 -0.198625 1.839544 
0.283965 -0.236068 1.839544 
0.252283 -0.269806 1.839544 
0.216623 -0.299307 1.839544 
0.177546 -0.324106 1.839544 
0.135669 -0.343812 1.839544 
0.091652 -0.358114 1.839544 
0.046190 -0.366786 1.839544 
0.000000 -0.369692 1.839544 
-0.046190 -0.366786 1.839544 
-0.091652 -0.358114 1.839544 
-0.135669 -0.343812 1.839544 
-0.177546 -0.324106 1.839543 
-0.216622 -0.299307 1.839543 
-0.252283 -0.269807 1.839543 
-0.283965 -0.236068 1.839543 
-0.311169 -0.198626 1.839543 
-0.333465 -0.158069 1.839543 
-0.350503 -0.115038 1.839543 
-0.362012 -0.070210 1.839543 
-0.367813 -0.024293 1.839543 
-0.367813 0.021989 1.839543 
-0.362013 0.067905 1.839543 
-0.350503 0.112733 1.839543 
-0.333465 0.155764 1.839543 
-0.311169 0.196321 1.839543 
-0.283965 0.233764 1.839543 
-0.252283 0.267502 1.839543 
-0.216623 0.297003 1.839543 
-0.177546 0.321802 1.839543 
-0.135669 0.341508 1.839544 
-0.091652 0.355810 1.839544 
-0.046190 0.364482 1.839544 
0.000000 0.367388 1.839544 
0.046190 0.364482 1.839544 
0.091651 0.355810 1.839544 
0.135669 0.341508 1.839544 
0.177545 0.321803 1.839544 
0.216622 0.297003 1.839544 
0.252283 0.267503 1.839544 
0.292381 0.240727 1.791843 
0.320391 0.202175 1.791843 
0.343348 0.160416 1.791843 
0.360891 0.116109 1.791843 
0.372741 0.069953 1.791843 
0.378714 0.022675 1.791843 
0.378714 -0.024978 1.791843 
0.372742 -0.072256 1.791843 
0.360891 -0.118412 1.791843 
0.343349 -0.162719 1.791843 
0.320391 -0.204478 1.791843 
0.292381 -0.243031 1.791843 
0.259760 -0.277769 1.791843 
0.223043 -0.308144 1.791843 
0.182808 -0.333678 1.791843 
0.139690 -0.353968 1.791843 
0.094369 -0.368694 1.791843 
0.047560 -0.377623 1.791843 
0.000000 -0.380615 1.791843 
-0.047559 -0.377623 1.791843 
-0.094368 -0.368694 1.791843 
-0.139690 -0.353968 1.791843 
-0.182808 -0.333678 1.791842 
-0.223042 -0.308144 1.791842 
-0.259760 -0.277769 1.791842 
-0.292381 -0.243031 1.791842 
-0.320391 -0.204479 1.791842 
-0.343349 -0.162720 1.791842 
-0.360891 -0.118413 1.791842 
-0.372741 -0.072257 1.791842 
-0.378714 -0.024979 1.791842 
-0.378714 0.022674 1.791842 
-0.372742 0.069952 1.791842 
-0.360891 0.116108 1.791842 
-0.343349 0.160415 1.791842 
-0.320391 0.202174 1.791842 
-0.292381 0.240727 1.791842 
-0.259760 0.275465 1.791842 
-0.223043 0.305840 1.791842 
-0.182808 0.331374 1.791842 
-0.139690 0.351664 1.791843 
-0.094369 0.366390 1.791843 
-0.047560 0.375319 1.791843 
0.000000 0.378311 1.791843 
0.047559 0.375319 1.791843 
0.094368 0.366390 1.791843 
0.139690 0.351664 1.791843 
0.182807 0.331375 1.791843 
0.223042 0.305840 1.791843 
0.259760 0.275465 1.791843 
0.264440 0.217612 1.945339 
0.289773 0.182744 1.945339 
0.310536 0.144976 1.945339 
0.326402 0.104903 1.945339 
0.337121 0.063158 1.945339 
0.342522 0.020398 1.945339 
0.342522 -0.022701 1.945339 
0.337121 -0.065461 1.945339 
0.326402 -0.107206 1.945339 
0.310536 -0.147279 1.945339 
0.289773 -0.185047 1.945339 
0.264440 -0.219916 1.945339 
0.234936 -0.251333 1.945339 
0.201728 -0.278806 1.945339 
0.165338 -0.301900 1.945339 
0.126340 -0.320251 1.945339 
0.085350 -0.333569 1.945339 
0.043014 -0.341645 1.945339 
0.000000 -0.344352 1.945339 
-0.043014 -0.341645 1.945339 
-0.085350 -0.333569 1.945339 
-0.126340 -0.320251 1.945339 
-0.165338 -0.301900 1.945338 
-0.201728 -0.278806 1.945338 
-0.234936 -0.251334 1.945338 
-0.264440 -0.219916 1.945338 
-0.289773 -0.185048 1.945338 
-0.310536 -0.147280 1.945338 
-0.326402 -0.107207 1.945338 
-0.337121 -0.065462 1.945338 
-0.342522 -0.022702 1.945338 
-0.342522 0.020397 1.945338 
-0.337121 0.063157 1.945338 
-0.326402 0.104902 1.945338 
-0.310536 0.144975 1.945338 
-0.289773 0.182743 1.945338 
-0.264440 0.217612 1.945338 
-0.234936 0.249029 1.945338 
-0.201728 0.276502 1.945338 
-0.165338 0.299596 1.945338 
-0.126340 0.317947 1.945339 
-0.085351 0.331265 1.945339 
-0.043014 0.339341 1.945339 
0.000000 0.342048 1.945339 
0.043014 0.339341 1.945339 
0.085350 0.331266 1.945339 
0.126340 0.317947 1.945339 
0.165337 0.299596 1.945339 
0.201728 0.276502 1.945339 
0.234936 0.249030 1.945339 
0.255381 0.210118 1.991948 
0.279847 0.176445 1.991948 
0.299898 0.139970 1.991948 
0.315221 0.101270 1.991948 
0.325572 0.060955 1.991948 
0.330789 0.019660 1.991948 
0.330789 -0.021963 1.991948 
0.325572 -0.063258 1.991948 
0.315221 -0.103573 1.991948 
0.299899 -0.142273 1.991948 
0.279847 -0.178748 1.991948 
0.255382 -0.212422 1.991948 
0.226889 -0.242764 1.991948 
0.194817 -0.269295 1.991948 
0.159674 -0.291598 1.991948 
0.122012 -0.309320 1.991948 
0.082426 -0.322182 1.991948 
0.041541 -0.329982 1.991948 
0.000000 -0.332595 1.991948 
-0.041540 -0.329982 1.991948 
-0.082426 -0.322182 1.991948 
-0.122012 -0.309320 1.991948 
-0.159674 -0.291598 1.991948 
-0.194817 -0.269295 1.991948 
-0.226889 -0.242764 1.991948 
-0.255381 -0.212422 1.991948 
-0.279847 -0.178749 1.991948 
-0.299899 -0.142274 1.991948 
-0.315221 -0.103574 1.991948 
-0.325572 -0.063259 1.991948 
-0.330789 -0.021964 1.991948 
-0.330789 0.019659 1.991948 
-0.325572 0.060954 1.991948 
-0.315221 0.101269 1.991948 
-0.299899 0.139969 1.991948 
-0.279847 0.176444 1.991948 
-0.255382 0.210118 1.991948 
-0.226889 0.240460 1.991948 
-0.194817 0.266991 1.991948 
-0.159675 0.289294 1.991948 
-0.122012 0.307016 1.991948 
-0.082427 0.319878 1.991948 
-0.041541 0.327678 1.991948 
0.000000 0.330291 1.991948 
0.041540 0.327678 1.991948 
0.082426 0.319879 1.991948 
0.122012 0.307016 1.991948 
0.159674 0.289294 1.991948 
0.194817 0.266991 1.991948 
0.226888 0.240460 1.991948 
0.239210 0.196740 2.070960 
0.262126 0.165199 2.070960 
0.280908 0.131034 2.070960 
0.295261 0.094785 2.070960 
0.304956 0.057022 2.070960 
0.309843 0.018342 2.070960 
0.309843 -0.020645 2.070960 
0.304956 -0.059325 2.070960 
0.295261 -0.097088 2.070960 
0.280908 -0.133337 2.070960 
0.262126 -0.167502 2.070960 
0.239211 -0.199044 2.070960 
0.212522 -0.227464 2.070960 
0.182481 -0.252315 2.070960 
0.149563 -0.273206 2.070960 
0.114286 -0.289806 2.070960 
0.077207 -0.301854 2.070960 
0.038911 -0.309159 2.070960 
0.000000 -0.311608 2.070960 
-0.038910 -0.309159 2.070960 
-0.077207 -0.301854 2.070960 
-0.114286 -0.289806 2.070960 
-0.149563 -0.273206 2.070960 
-0.182481 -0.252316 2.070960 
-0.212522 -0.227464 2.070960 
-0.239210 -0.199044 2.070960 
-0.262126 -0.167503 2.070960 
-0.280908 -0.133338 2.070960 
-0.295261 -0.097089 2.070960 
-0.304956 -0.059326 2.070960 
-0.309843 -0.020646 2.070960 
-0.309843 0.018341 2.070960 
-0.304956 0.057021 2.070960 
-0.295261 0.094784 2.070960 
-0.280909 0.131033 2.070960 
-0.262126 0.165198 2.070960 
-0.239211 0.196740 2.070960 
-0.212522 0.225160 2.070960 
-0.182481 0.250012 2.070960 
-0.149564 0.270902 2.070960 
-0.114286 0.287502 2.070960 
-0.077208 0.299550 2.070960 
-0.038911 0.306855 2.070960 
0.000000 0.309304 2.070960 
0.038910 0.306855 2.070960 
0.077207 0.299550 2.070960 
0.114286 0.287502 2.070960 
0.149563 0.270902 2.070960 
0.182481 0.250012 2.070960 
0.212521 0.225160 2.070960 
0.227878 0.187366 2.123782 
0.249709 0.157319 2.123782 
0.267602 0.124772 2.123782 
0.281275 0.090240 2.123782 
0.290511 0.054266 2.123782 
0.295165 0.017419 2.123782 
0.295165 -0.019722 2.123782 
0.290511 -0.056569 2.123782 
0.281275 -0.092543 2.123782 
0.267602 -0.127076 2.123782 
0.249709 -0.159622 2.123782 
0.227879 -0.189670 2.123782 
0.202455 -0.216744 2.123782 
0.173837 -0.240418 2.123782 
0.142479 -0.260319 2.123782 
0.108872 -0.276133 2.123782 
0.073550 -0.287610 2.123782 
0.037068 -0.294569 2.123782 
0.000000 -0.296901 2.123782 
-0.037067 -0.294569 2.123782 
-0.073550 -0.287610 2.123782 
-0.108872 -0.276133 2.123782 
-0.142479 -0.260319 2.123782 
-0.173837 -0.240418 2.123782 
-0.202455 -0.216744 2.123782 
-0.227879 -0.189670 2.123782 
-0.249709 -0.159623 2.123782 
-0.267602 -0.127076 2.123782 
-0.281275 -0.092544 2.123782 
-0.290511 -0.056570 2.123782 
-0.295166 -0.019723 2.123782 
-0.295166 0.017418 2.123782 
-0.290511 0.054266 2.123782 
-0.281275 0.090239 2.123782 
-0.267603 0.124772 2.123782 
-0.249709 0.157318 2.123782 
-0.227879 0.187366 2.123782 
-0.202455 0.214440 2.123782 
-0.173837 0.238114 2.123782 
-0.142479 0.258015 2.123782 
-0.108873 0.273829 2.123782 
-0.073550 0.285306 2.123782 
-0.037068 0.292265 2.123782 
0.000000 0.294597 2.123782 
0.037067 0.292265 2.123782 
0.073549 0.285306 2.123782 
0.108872 0.273829 2.123782 
0.142478 0.258015 2.123782 
0.173836 0.238114 2.123782 
0.202454 0.214440 2.123782 
0.200933 0.165075 2.239913 
0.220183 0.138581 2.239913 
0.235960 0.109882 2.239913 
0.248016 0.079433 2.239913 
0.256160 0.047713 2.239913 
0.260264 0.015222 2.239913 
0.260264 -0.017526 2.239913 
0.256161 -0.050017 2.239913 
0.248016 -0.081737 2.239913 
0.235960 -0.112186 2.239913 
